# .PCD v0.7 - Point Cloud Data file format
VERSION 0.7
FIELDS x y z intensity
SIZE 4 4 4 4
TYPE F F F F
COUNT 1 1 1 1
WIDTH 1525
HEIGHT 1
VIEWPOINT 0 0 0 1 0 0 0
POINTS 1525
DATA ascii
1.457368 7.2740002 2.3642743 42
1.0973611 6.1370001 2.1235771 61
1.8286784 7.2270002 2.216336 53
1.6047152 7.223 2.3700905 42
1.2449013 6.2220001 2.1692054 33
0.92995077 5.0910001 1.8910394 27
1.757979 7.2199998 2.3632188 53
1.3820444 6.25 2.1945381 31
1.0391157 5.0640001 1.8911886 22
0.85909504 4.8410001 1.9175814 59
1.5107769 6.2249999 2.1740203 39
1.1452613 5.0549998 1.8954465 20
0.96427321 4.829 1.9191815 63
0.81309557 4.8319998 2.0351572 58
1.2551491 5.0770001 1.8893126 24
1.0649198 4.823 1.9186685 57
0.91960275 4.8340001 2.0362735 63
0.91045129 6.6750002 2.9621542 29
1.1650779 4.8189998 1.9002737 54
1.0205498 4.8249998 2.0303838 55
1.0566478 6.6799998 2.9586067 28
0.68084061 4.2090001 1.9922431 13
1.1192567 4.8239999 2.0080023 55
1.2016988 6.71 2.962249 27
0.77230203 4.2049999 1.9830333 8
0.74177545 5.9310002 2.9452882 47
1.0724683 4.8200002 2.1130729 27
0.86515826 4.2459998 1.9921283 0
0.87310952 5.9520001 2.9381208 25
0.67151588 5.6209998 2.9445236 33
1.2402425 6.46 2.9647751 27
0.81340098 4.1440001 2.0463333 12
0.79626638 5.6589999 2.9420099 28
0.56101978 4.191 2.3225517 43
0.89954174 4.164 2.0225055 20
0.91805845 5.7140002 2.9458404 27
0.65399331 4.224 2.3195643 41
0.51656425 4.033 2.3492672 57
1.0423863 5.8119998 2.9442329 31
0.74533743 4.276 2.322437 44
0.60355031 4.0300002 2.3236268 61
0.47866052 4.0359998 2.4684114 57
0.83450246 4.3319998 2.3110535 9
0.68836707 4.0650001 2.3168354 44
0.56467921 4.0370002 2.4401131 66
0.43954998 4.0430002 2.5925095 54
0.77517956 4.1490002 2.3175952 40
0.64682823 4.026 2.4011834 57
0.5261085 4.033 2.5512223 66
0.39839742 2.865 1.9377741 25
0.72529113 4.0380001 2.3583279 53
0.60644507 4.026 2.5114474 57
0.46061754 2.8859999 1.9226527 8
0.36018324 4.0500002 2.8478951 53
0.68375731 4.0310001 2.4592285 52
0.56745178 4.026 2.6234632 56
0.43030635 2.836 1.9758244 9
0.32220376 3.961 2.9151452 47
0.64391875 4.0409999 2.5730569 54
0.48865691 2.846 1.9500716 21
0.40617532 4.0250001 2.9101667 55
0.3176114 2.7 2.0920908 12
0.5424149 2.8710001 1.9199704 10
0.48590595 4.0339999 2.8645926 55
0.36684248 3.832 2.8951356 46
0.25544235 3.595 2.8950479 21
0.51071364 2.8280001 1.9713906 11
0.44326794 3.9260001 2.9087059 45
0.347224 2.681 2.1279669 33
0.22511649 3.4430001 2.8985605 4
0.51739222 4.0240002 2.903549 52
0.39910829 2.6930001 2.0947852 25
0.29561546 3.5090001 2.8917131 15
0.39500001 0 0.045000002 0
0.47026911 3.8540001 2.8981259 44
0.36357886 3.585 2.8903036 31
0.26293224 3.3599999 2.8908167 0
0.39500001 0 0.045000002 0
0.41808456 2.688 2.1179779 48
0.32642505 3.437 2.8895292 12
0.39500001 0 0.045000002 0
0.39500001 0 0.045000002 0
0.3859922 3.543 2.8919282 36
0.39500001 0 0.045000002 0
0.39500001 0 0.045000002 0
0.39500001 0 0.045000002 0
0.34847698 3.405 2.8942955 14
0.39500001 0 0.045000002 0
0.39500001 0 0.045000002 0
0.39500001 0 0.045000002 0
0.39500001 0 0.045000002 0
0.39500001 0 0.045000002 0
0.39500001 0 0.045000002 0
0.39500001 0 0.045000002 0
0.39500001 0 0.045000002 0
0.39500001 0 0.045000002 0
0.39500001 0 0.045000002 0
0.071415402 2.4949999 2.8566799 14
0.39500001 0 0.045000002 0
0.39500001 0 0.045000002 0
0.39500001 0 0.045000002 0
0.052932646 2.395 2.8679218 32
0.39500001 0 0.045000002 0
0.39500001 0 0.045000002 0
0.093406223 2.464 2.8592107 22
0.039577361 2.279 2.8539705 49
0.39500001 0 0.045000002 0
0.13236773 2.5280001 2.8442774 1
0.074796386 2.349 2.8494294 37
0.024776001 2.1760001 2.8525858 45
0.39500001 0 0.045000002 0
0.10905292 2.4349999 2.8587832 25
0.057337068 2.2479999 2.8490117 48
0.012148804 2.076 2.8489041 45
0.13822821 2.516 2.8459067 0
0.088329896 2.3280001 2.8535333 32
0.041206818 2.1500001 2.8481102 46
-0.00053952029 1.977 2.8429875 42
0.11376269 2.418 2.8510489 26
0.069419615 2.2260001 2.849129 41
0.025921753 2.052 2.8453963 45
-0.012138367 1.887 2.8441992 44
0.089057863 2.329 2.8638034 30
0.051354554 2.1259999 2.842912 44
0.011542908 1.959 2.8431048 46
-0.022891875 1.7970001 2.8435981 49
0.068574399 2.2219999 2.8509417 38
0.033834167 2.0309999 2.8402588 40
-0.0027747496 1.869 2.8430486 44
-0.03322278 1.709 2.8420908 50
0.048757691 2.1240001 2.8461144 40
0.016436096 1.942 2.8420761 43
-0.015824677 1.78 2.8402734 49
-0.04228586 1.622 2.8378646 47
0.0294859 2.0309999 2.8448515 41
0.00036679077 1.855 2.8434103 42
-0.026639283 1.693 2.8374372 53
-0.051287964 1.539 2.8358738 77
0.010275085 1.942 2.8458238 42
-0.013166748 1.767 2.8393061 43
-0.039566927 1.6109999 2.8391325 50
0.091493778 0.972 1.9050002 17
-0.0067615965 1.854 2.8444996 42
-0.026700379 1.681 2.835202 46
0.10097454 1.011 1.8917674 6
-0.06578888 1.377 2.8291121 46
-0.023436677 1.766 2.8400342 41
-0.039327607 1.597 2.8315208 46
0.093123168 0.963 1.8991398 15
-0.072616607 1.298 2.8248246 51
-0.03872171 1.682 2.8373201 40
0.097532533 1.008 1.8967825 9
-0.067300968 1.365 2.8228898 69
-0.07932242 1.223 2.8250079 50
-0.054429475 1.599 2.8355122 40
0.088774845 0.95999998 1.9037324 12
-0.076603487 1.291 2.8262756 55
-0.083130799 1.146 2.8166118 56
0.088408418 1.005 1.890321 9
-0.07485196 1.359 2.8248858 43
-0.084699161 1.217 2.8247075 51
-0.090860046 1.0779999 2.8284547 51
0.07518509 0.96499997 1.913946 11
-0.084760256 1.283 2.8224721 50
-0.090803862 1.1390001 2.814137 65
-0.095875278 1.006 2.8250127 53
-0.092794828 1.358 2.8231392 40
-0.095452666 1.21 2.8241065 51
-0.10028476 1.072 2.8273702 54
-0.099862151 0.93699998 2.8264639 46
-0.1061452 1.285 2.8257408 47
-0.10258587 1.131 2.8086431 53
-0.10819715 1.0039999 2.8325076 51
-0.1051167 0.86900002 2.8306339 48
-0.11780499 1.21 2.8247173 49
-0.11375717 1.066 2.8255014 48
-0.11357404 0.93400002 2.832207 46
-0.10838043 0.80000001 2.8258018 45
-0.12699029 1.133 2.8160205 44
-0.1234823 0.99699998 2.8297935 47
-0.11991815 0.86299998 2.8292487 45
-0.10989249 0.73100001 2.8195798 52
-0.13931213 1.064 2.8235154 46
-0.131578 0.926 2.8282251 46
-0.12251984 0.792 2.8158984 49
-0.11303415 0.66399997 2.8192182 55
-0.15036622 0.995 2.8282909 44
-0.13876733 0.85699999 2.8270795 43
-0.12910333 0.72500002 2.8205521 50
-0.11695981 0.59899998 2.8229046 53
-0.15979077 0.92299998 2.8272066 43
-0.14589563 0.78799999 2.8281686 46
-0.13357379 0.65899998 2.8206744 50
-0.11720404 0.53299999 2.8139637 53
-0.17042224 0.85500002 2.8310761 44
-0.15030994 0.71700001 2.8139734 49
-0.13683747 0.59200001 2.8158424 52
-0.12058502 0.46900001 2.821214 52
-0.1777337 0.78500003 2.8254597 40
-0.1573772 0.65100002 2.8172982 48
-0.14203107 0.528 2.8222475 51
-0.11871625 0.40400001 2.8077414 106
-0.18612988 0.71700001 2.8292682 42
-0.16317658 0.58499998 2.817904 51
-0.14438848 0.46200001 2.817838 54
0.023146881 0.24600001 2.0397398 56
-0.1909668 0.64600003 2.8159788 47
-0.16891497 0.51999998 2.820745 47
-0.13691321 0.391 2.7639482 150
-0.03741223 0.233 2.3612711 54
-0.19894037 0.57999998 2.818881 47
-0.17266229 0.45300001 2.814584 50
-0.01000058 0.248 2.1037261 150
-0.030476836 0.178 2.3203704 142
-0.20534565 0.51200002 2.8136876 44
-0.024266968 0.285 2.072799 20
-0.062783934 0.226 2.3659909 46
0.058128968 0.1 1.8464104 49
-0.21156763 0.44600001 2.8151996 49
-0.038086332 0.243 2.1237307 151
0.010143433 0.145 1.9895411 155
0.39500001 0 0.045000002 0
-0.0489816 0.27500001 2.0524478 150
-0.08942844 0.21699999 2.3568766 27
0.39500001 0 0.045000002 0
0.39500001 0 0.045000002 0
-0.091702729 0.24699999 2.2245142 131
0.39500001 0 0.045000002 0
0.040904205 0.052000001 1.8218277 7
0.39500001 0 0.045000002 0
-0.12561481 0.207 2.3587601 11
0.39500001 0 0.045000002 0
0.39500001 0 0.045000002 0
0.39500001 0 0.045000002 0
0.39500001 0 0.045000002 0
0.39500001 0 0.045000002 0
0.39500001 0 0.045000002 0
0.39500001 0 0.045000002 0
0.39500001 0 0.045000002 0
0.39500001 0 0.045000002 0
0.39500001 0 0.045000002 0
0.39500001 0 0.045000002 0
0.39500001 0 0.045000002 0
0.39500001 0 0.045000002 0
0.39500001 0 0.045000002 0
0.39500001 0 0.045000002 0
0.39500001 0 0.045000002 0
0.39500001 0 0.045000002 0
0.39500001 0 0.045000002 0
0.39500001 0 0.045000002 0
0.39500001 0 0.045000002 0
0.39500001 0 0.045000002 0
0.39500001 0 0.045000002 0
0.39500001 0 0.045000002 0
0.39500001 0 0.045000002 0
0.39500001 0 0.045000002 0
0.39500001 0 0.045000002 0
0.39500001 0 0.045000002 0
0.39500001 0 0.045000002 0
0.39500001 0 0.045000002 0
0.39500001 0 0.045000002 0
0.39500001 0 0.045000002 0
0.39500001 0 0.045000002 0
0.39500001 0 0.045000002 0
0.39500001 0 0.045000002 0
0.39500001 0 0.045000002 0
0.39500001 0 0.045000002 0
0.39500001 0 0.045000002 0
0.39500001 0 0.045000002 0
0.39500001 0 0.045000002 0
0.39500001 0 0.045000002 0
0.39500001 0 0.045000002 0
0.39500001 0 0.045000002 0
0.39500001 0 0.045000002 0
0.39500001 0 0.045000002 0
0.39500001 0 0.045000002 0
0.39500001 0 0.045000002 0
0.39500001 0 0.045000002 0
0.39500001 0 0.045000002 0
0.39500001 0 0.045000002 0
0.39500001 0 0.045000002 0
0.39500001 0 0.045000002 0
0.39500001 0 0.045000002 0
0.39500001 0 0.045000002 0
0.39500001 0 0.045000002 0
0.39500001 0 0.045000002 0
0.39500001 0 0.045000002 0
0.39500001 0 0.045000002 0
0.39500001 0 0.045000002 0
0.39500001 0 0.045000002 0
0.39500001 0 0.045000002 0
0.39500001 0 0.045000002 0
0.39500001 0 0.045000002 0
0.39500001 0 0.045000002 0
0.39500001 0 0.045000002 0
0.39500001 0 0.045000002 0
0.39500001 0 0.045000002 0
0.39500001 0 0.045000002 0
0.39500001 0 0.045000002 0
0.39500001 0 0.045000002 0
0.39500001 0 0.045000002 0
0.39500001 0 0.045000002 0
0.39500001 0 0.045000002 0
0.39500001 0 0.045000002 0
0.39500001 0 0.045000002 0
0.39500001 0 0.045000002 0
0.39500001 0 0.045000002 0
0.39500001 0 0.045000002 0
0.39500001 0 0.045000002 0
0.39500001 0 0.045000002 0
0.39500001 0 0.045000002 0
0.39500001 0 0.045000002 0
0.39500001 0 0.045000002 0
0.39500001 0 0.045000002 0
0.39500001 0 0.045000002 0
0.39500001 0 0.045000002 0
0.39500001 0 0.045000002 0
0.39500001 0 0.045000002 0
0.39500001 0 0.045000002 0
0.39500001 0 0.045000002 0
0.39500001 0 0.045000002 0
0.39500001 0 0.045000002 0
0.39500001 0 0.045000002 0
0.39500001 0 0.045000002 0
0.39500001 0 0.045000002 0
0.021605194 -1.589 2.7529066 26
0.39500001 0 0.045000002 0
0.39500001 0 0.045000002 0
-0.058680054 -1.5930001 2.7618108 5
0.031936098 -1.6670001 2.7544136 42
0.39500001 0 0.045000002 0
0.39500001 0 0.045000002 0
-0.048593383 -1.669 2.7543769 32
0.04431906 -1.743 2.7491541 43
0.39500001 0 0.045000002 0
-0.12773284 -1.6720001 2.7560918 13
-0.03790085 -1.75 2.7527425 47
0.056824218 -1.823 2.7483649 44
0.39500001 0 0.045000002 0
-0.11843036 -1.755 2.7527061 34
-0.027692139 -1.8329999 2.7497795 44
0.068545133 -1.908 2.7516241 43
0.39500001 0 0.045000002 0
-0.10955054 -1.8430001 2.7502263 41
-0.016454803 -1.921 2.7517092 48
0.082440153 -1.994 2.7525861 43
-0.1957572 -1.862 2.7552662 26
-0.10175528 -1.938 2.7571716 41
-0.0044334717 -2.0090001 2.7495914 43
0.09735889 -2.073 2.7418892 40
-0.18657684 -1.9529999 2.7474096 33
-0.089555606 -2.023 2.7452064 44
0.009278412 -2.096 2.7438481 45
0.11264395 -2.165 2.7446029 43
-0.17932642 -2.0539999 2.7507908 38
-0.077595249 -2.1159999 2.7408533 40
0.022206146 -2.1889999 2.7421529 45
0.21629067 -1.513 1.8550631 5
-0.16754931 -2.1470001 2.739732 39
0.081697814 -1.503 1.8739513 4
0.15593448 -1.522 1.8401589 18
0.22957501 -1.558 1.8336732 15
0.025023041 -1.505 1.84642 6
0.098358244 -1.534 1.828758 21
0.053071868 -2.3729999 2.7256513 36
0.21841587 -1.862 2.0965903 14
0.035771698 -1.564 1.8304681 13
-0.037004396 -2.4070001 2.7200594 41
0.068779662 -2.4779999 2.7274587 24
0.23182727 -1.9400001 2.0962238 3
-0.13378143 -2.4649999 2.7312036 39
-0.025461731 -2.5280001 2.7331655 26
0.087262392 -2.575 2.7162168 5
0.39500001 0 0.045000002 0
-0.1192243 -2.576 2.7236478 28
-0.0083078919 -2.632 2.7224069 6
0.39500001 0 0.045000002 0
0.39500001 0 0.045000002 0
-0.1041835 -2.691 2.7174211 6
0.39500001 0 0.045000002 0
0.39500001 0 0.045000002 0
0.39500001 0 0.045000002 0
0.39500001 0 0.045000002 0
0.39500001 0 0.045000002 0
0.39500001 0 0.045000002 0
0.39500001 0 0.045000002 0
0.39500001 0 0.045000002 0
0.39500001 0 0.045000002 0
0.39500001 0 0.045000002 0
0.39500001 0 0.045000002 0
0.39500001 0 0.045000002 0
0.39500001 0 0.045000002 0
0.39500001 0 0.045000002 0
0.39500001 0 0.045000002 0
0.39500001 0 0.045000002 0
0.39500001 0 0.045000002 0
0.39500001 0 0.045000002 0
0.34624907 -3.3510001 2.7145092 13
0.39500001 0 0.045000002 0
0.39500001 0 0.045000002 0
0.28049922 -2.573 2.0273397 20
0.37591299 -3.4990001 2.7195146 33
0.39500001 0 0.045000002 0
0.1952794 -2.7609999 2.101249 21
0.30170587 -2.697 2.0339184 29
0.40623888 -3.642 2.716002 43
0.034085877 -3.6600001 2.6693525 40
0.21666436 -2.8840001 2.0979805 31
0.32418036 -2.8239999 2.0377781 23
0.43895879 -3.6849999 2.636369 47
0.075553805 -3.6670001 2.5496638 48
0.24605952 -2.8929999 2.0112803 29
0.34858471 -2.9400001 2.0304008 7
0.47021788 -3.6700001 2.5196433 49
0.11750045 -3.642 2.4147508 46
0.27130422 -2.9909999 1.9855373 29
0.37153298 -3.665 2.4118366 58
0.50172132 -3.6659999 2.4118586 51
0.18028992 -3.2809999 2.0766053 34
0.29583564 -3.1600001 1.9991831 30
0.40527162 -3.6619999 2.3039911 57
0.53098947 -3.655 2.3041351 50
0.19753413 -3.6070001 2.1673996 43
0.31690785 -3.599 2.1645854 44
0.43774238 -3.6600001 2.198864 56
0.56140822 -3.655 2.2057748 51
0.23399661 -3.6370001 2.0773747 36
0.35048279 -3.698 2.1162457 36
0.47130755 -3.6919999 2.1174185 40
0.59261602 -3.6730001 2.11992 39
0.27034175 -3.687 1.9994322 30
0.38576284 -3.885 2.1139398 38
0.50918442 -3.8670001 2.1119096 40
0.63121593 -3.826 2.1081281 39
0.2724106 -5.2210002 2.6646307 30
0.43226287 -5.1919999 2.6696582 24
0.59241551 -5.1630001 2.6693087 25
0.65981722 -3.789 1.99237 3
0.32134151 -5.4990001 2.654346 32
0.4847579 -5.4549999 2.658829 25
0.6481083 -5.3829999 2.6445234 28
0.81146848 -5.3460002 2.6633236 30
0.38209128 -3.8110001 1.7503198 15
0.49355742 -3.806 1.7691959 29
0.60514075 -3.78 1.7759897 35
0.72053748 -3.7869999 1.8077325 18
0.43497202 -6.151 2.6378198 29
0.58149838 -5.3150001 2.3188608 21
0.78059292 -6.0040002 2.6467195 28
0.95011401 -5.9219999 2.6617725 18
0.47020099 -4.5570002 1.8476783 46
0.62906128 -5.2919998 2.1766362 20
0.85640764 -6.336 2.6379375 27
1.0271355 -6.2210002 2.6480365 30
0.5148105 -4.5450001 1.7283511 55
0.63745761 -4.5419998 1.7634747 57
0.76505888 -4.553 1.7998053 63
0.8938719 -4.5570002 1.8477346 51
0.56257117 -4.6240001 1.6424911 24
0.67880821 -4.546 1.6558684 49
0.80230063 -4.5380001 1.6891795 63
0.93002898 -4.5619998 1.7465334 56
0.74853754 -7.7059999 2.5214341 55
0.81011289 -5.79 1.9587364 14
0.85641527 -4.6989999 1.6393839 31
0.96721447 -4.5770001 1.6502255 44
0.71508497 -5.7540002 1.7555379 37
0.86275208 -5.7839999 1.8221893 9
1.2193217 -7.7259998 2.4938076 47
1.0355955 -4.822 1.6313567 25
0.79300302 -6.0760002 1.7091184 4
1.0884544 -7.7189999 2.2396922 44
1.0596725 -5.7690001 1.7429913 56
1.211876 -5.8039999 1.8283089 17
1.1523453 -10.06 2.5640869 21
1.351225 -9.6549997 2.5729692 23
1.3618003 -7.8130002 2.1740642 27
1.2591434 -5.8189998 1.7080142 2
1.063989 -7.875 1.8354812 15
1.2496649 -7.8979998 1.9342004 1
1.7250538 -10.056 2.5663345 21
1.8950586 -9.5869999 2.5827165 16
1.4927849 -11.585 2.4160974 53
1.7397844 -11.457 2.5323784 47
1.5055468 -7.8870001 1.8516018 26
1.8945432 -9.1210003 2.2691169 18
1.6077323 -11.582 2.1530285 49
1.8013108 -11.111 2.2135046 15
1.8598715 -9.802 2.0808222 20
1.9073318 -8.7740002 2.000339 19
1.6940343 -11.343 1.8567417 126
1.8231381 -10.514 1.8661884 27
1.9820374 -10.042 1.9182169 21
2.0878873 -9.3889999 1.9444045 17
1.8061454 -11.336 1.6044877 128
2.0436738 -11.358 1.7671077 94
2.2899599 -11.358 1.9227779 111
2.578073 -11.589 2.1520176 52
1.9200691 -11.338 1.3530788 119
2.1492624 -11.346 1.5217427 95
2.3881197 -11.345 1.683879 84
2.6315794 -11.382 1.8834696 120
2.034054 -11.334 1.1039053 120
2.2575698 -11.354 1.2776453 93
2.4922621 -11.368 1.45108 99
6.2177467 -28.448 4.0599704 6
2.1485834 -11.333 0.85829592 129
2.364126 -11.343 1.034938 93
2.6245 -11.525 1.2313823 6
6.412158 -28.261 3.4632218 7
2.2657099 -11.334 0.60948384 123
2.4743681 -11.347 0.79615647 92
6.05896 -27.979 2.3418939 7
2.9926517 -11.744 1.2298237 6
2.3819907 -11.323 0.36248443 120
0.39500001 0 0.045000002 0
2.8892717 -11.789 0.7700569 1
0.39500001 0 0.045000002 0
2.0187154 -8.7340002 0.10040257 60
2.3459585 -9.6149998 0.27175593 29
2.9769173 -11.693 0.52294511 6
7.0399957 -27.902 1.7334954 8
2.2695479 -9.533 -0.1015086 91
2.199398 -8.4759998 0.065491408 4
2.2399156 -8.0179996 0.2057566 18
7.2868562 -27.927999 1.1733408 13
2.0341985 -7.9050002 -0.24987201 43
2.5241153 -9.5439997 -0.13396463 48
2.2854779 -7.8909998 0.039428353 12
2.4345028 -7.9840002 0.20491391 28
2.4333868 -9.335 -0.50728536 86
2.5586138 -9.2690001 -0.32862291 63
3.2877054 -11.606 -0.20269719 104
2.5173411 -8.0319996 0.043830495 20
2.2126143 -7.9200001 -0.59699273 3
2.5765641 -8.948 -0.50672352 1
3.3992155 -11.598 -0.44419768 103
3.5667529 -11.601 -0.19063665 83
0.39500001 0 0.045000002 0
3.3579335 -11.644 -0.92355645 1
3.5159805 -11.604 -0.68986815 104
3.5932682 -11.32 -0.41549876 28
0.39500001 0 0.045000002 0
2.3176973 -7.2470002 -0.71349847 1
0.39500001 0 0.045000002 0
2.7192159 -7.9640002 -0.44351396 12
1.6772795 -4.855 -0.67228985 0
1.996251 -5.7950001 -0.68905771 1
0.39500001 0 0.045000002 0
3.1700542 -9.2110004 -0.70994395 1
1.5243821 -4.0910001 -0.65200663 2
1.7656652 -4.7659998 -0.66307276 1
2.1317549 -5.7919998 -0.69097048 1
1.7224896 -4.2690001 -0.39301747 30
1.4063421 -3.507 -0.63312322 2
1.5953696 -4.0159998 -0.64097208 3
1.7229148 -4.2750001 -0.59032398 14
1.733341 -4.1739998 -0.47071081 32
1.319896 -3.075 -0.6204716 1
1.4736434 -3.4719999 -0.62601447 3
1.6963778 -4.0510001 -0.64462674 7
1.7371861 -4.0580001 -0.54284412 32
1.252177 -2.733 -0.61012113 3
1.3865916 -3.073 -0.61916214 2
1.5599113 -3.503 -0.62881887 6
1.7371665 -3.937 -0.60905588 10
1.2048144 -2.4779999 -0.60793239 4
1.313012 -2.7409999 -0.61044109 4
1.4520191 -3.073 -0.61513382 2
1.6411077 -3.5469999 -0.62074751 7
1.1654866 -2.2639999 -0.60641044 5
1.2545955 -2.474 -0.60347652 4
1.3765659 -2.76 -0.60949332 4
1.5361128 -3.1500001 -0.61564195 1
1.1267644 -2.066 -0.59908915 5
1.2112197 -2.263 -0.6027388 4
1.3153694 -2.503 -0.60603172 4
1.4393357 -2.8 -0.60449761 4
1.0955322 -1.902 -0.59599888 7
1.1758785 -2.089 -0.60266799 5
1.2613622 -2.279 -0.60142452 4
1.3705271 -2.5380001 -0.60127538 4
1.0679253 -1.756 -0.59121817 8
1.1358275 -1.911 -0.594863 6
1.2167187 -2.092 -0.59796786 4
1.3124722 -2.316 -0.59745234 4
1.0464792 -1.637 -0.59018487 8
1.1055017 -1.77 -0.59135008 8
1.1809548 -1.936 -0.5969907 7
1.2628742 -2.1270001 -0.59520245 5
1.0311941 -1.539 -0.59289885 7
1.0826657 -1.654 -0.59206831 8
1.1500843 -1.802 -0.59704196 10
1.2160566 -1.955 -0.58944947 5
1.005522 -1.42 -0.58280247 8
1.0537908 -1.529 -0.58456868 8
1.1158326 -1.665 -0.58984292 8
1.1711125 -1.794 -0.58061612 24
0.99078161 -1.335 -0.58195239 8
1.0341574 -1.433 -0.58269012 8
1.0951706 -1.566 -0.59285736 8
1.1520801 -1.697 -0.58949107 9
0.97694761 -1.256 -0.58067966 1
1.0189333 -1.35 -0.58316892 8
1.0619475 -1.444 -0.58076513 8
1.1204252 -1.581 -0.58549458 8
0.96534884 -1.184 -0.57946795 7
1.00069 -1.2640001 -0.57953882 1
1.047085 -1.3660001 -0.58438545 8
1.0971665 -1.484 -0.58530641 7
0.94722754 -1.105 -0.57136738 0
0.98685598 -1.193 -0.57826602 1
1.0244323 -1.277 -0.57839793 1
1.0673856 -1.38 -0.57822943 7
0.39500001 0 0.045000002 0
0.97217667 -1.123 -0.57518071 0
1.008363 -1.204 -0.57706422 1
1.0490198 -1.302 -0.57906985 8
0.39500001 0 0.045000002 0
0.39500001 0 0.045000002 0
0.9975484 -1.143 -0.57990038 0
1.0302927 -1.227 -0.57676858 1
0.39500001 0 0.045000002 0
0.39500001 0 0.045000002 0
0.39500001 0 0.045000002 0
1.0093914 -1.152 -0.57217109 5
0.39500001 0 0.045000002 0
0.39500001 0 0.045000002 0
0.39500001 0 0.045000002 0
0.39500001 0 0.045000002 0
0.39500001 0 0.045000002 0
0.39500001 0 0.045000002 0
0.39500001 0 0.045000002 0
0.39500001 0 0.045000002 0
0.39500001 0 0.045000002 0
0.39500001 0 0.045000002 0
0.39500001 0 0.045000002 0
0.39500001 0 0.045000002 0
0.39500001 0 0.045000002 0
0.39500001 0 0.045000002 0
0.39500001 0 0.045000002 0
0.39500001 0 0.045000002 0
0.88965625 -0.72600001 -0.5662154 2
0.39500001 0 0.045000002 0
0.39500001 0 0.045000002 0
0.39500001 0 0.045000002 0
0.88343418 -0.68900001 -0.56470323 4
0.89690667 -0.72899997 -0.5628345 2
0.39500001 0 0.045000002 0
0.39500001 0 0.045000002 0
0.87769592 -0.65200001 -0.56186217 3
0.89195251 -0.69499999 -0.56404126 3
0.90542501 -0.73699999 -0.56217241 1
0.39500001 0 0.045000002 0
0.86676401 -0.61199999 -0.55261588 4
0.88790464 -0.66299999 -0.56482536 3
0.8974514 -0.699 -0.55927026 2
0.91388226 -0.75300002 -0.56374562 1
0.86664182 -0.58600003 -0.55708635 3
0.88385683 -0.63200003 -0.56560957 3
0.8929199 -0.66799998 -0.56138337 3
0.90542501 -0.71499997 -0.56217241 2
0.86174875 -0.55599999 -0.55605793 3
0.87546068 -0.597 -0.56180108 3
0.88796574 -0.63700002 -0.56259012 3
0.89654517 -0.67799997 -0.55969292 3
0.85776198 -0.528 -0.5546068 3
0.86670291 -0.56199998 -0.55485111 3
0.88174373 -0.60500002 -0.56107801 3
0.89243627 -0.64899999 -0.56271231 3
0.85293001 -0.49900001 -0.55134314 4
0.86398399 -0.53500003 -0.55611902 3
0.87419283 -0.57300001 -0.55908215 3
0.88355631 -0.61500001 -0.56023276 3
0.85196263 -0.47600001 -0.55400097 4
0.85866833 -0.50700003 -0.5541842 3
0.86929977 -0.54400003 -0.55805379 3
0.87993115 -0.58700001 -0.56192321 3
0.8471306 -0.44800001 -0.55073732 4
0.85425889 -0.47999999 -0.55182683 3
0.85963571 -0.51200002 -0.55152637 3
0.86893809 -0.55199999 -0.55491221 3
0.84405017 -0.42300001 -0.54886365 3
0.85111737 -0.45500001 -0.55218834 3
0.85691673 -0.48699999 -0.55279422 3
0.86138719 -0.523 -0.55291641 3
0.83879554 -0.398 -0.54469365 6
0.8471306 -0.43000001 -0.55073732 3
0.85160106 -0.461 -0.55085945 3
0.85733938 -0.49700001 -0.55370051 3
0.83873439 -0.377 -0.54692888 3
0.84314382 -0.40599999 -0.54928625 3
0.84586275 -0.43399999 -0.54801846 3
0.85027212 -0.46900001 -0.55037576 3
0.83825076 -0.35699999 -0.54825783 3
0.84133118 -0.384 -0.55013156 3
0.84272116 -0.41100001 -0.54837996 3
0.8449564 -0.44400001 -0.54844105 6
0.83517027 -0.33500001 -0.54638416 4
0.83607656 -0.361 -0.5459615 3
0.83915704 -0.389 -0.54783523 3
0.83915704 -0.41999999 -0.54783523 3
0.83166713 -0.31299999 -0.54360414 3
0.83426392 -0.34 -0.54680675 3
0.837767 -0.36899999 -0.54958671 3
0.83601552 -0.39700001 -0.54819679 3
0.83335769 -0.29499999 -0.54722935 5
0.39500001 0 0.045000002 0
0.83202869 -0.345 -0.54674566 4
0.83202869 -0.375 -0.54674566 3
0.82683516 -0.27200001 -0.54034036 5
0.83239025 -0.301 -0.54988718 3
0.82417732 -0.31999999 -0.5393731 3
0.82629043 -0.352 -0.5439046 3
0.82810301 -0.255 -0.54305935 5
0.39500001 0 0.045000002 0
0.39500001 0 0.045000002 0
0.82272619 -0.331 -0.54335982 6
0.82502252 -0.236 -0.54118568 5
0.82236469 -0.25799999 -0.54021829 4
0.82272619 -0.28299999 -0.54335982 3
0.81958473 -0.31 -0.54372138 5
0.82327098 -0.21699999 -0.5397957 5
0.82230359 -0.23999999 -0.54245347 3
0.81873947 -0.26300001 -0.5419088 3
0.81602049 -0.28999999 -0.54317665 5
0.82586777 -0.20100001 -0.54299831 4
0.81880051 -0.221 -0.53967357 3
0.81523633 -0.244 -0.53912878 3
0.81420791 -0.271 -0.5440219 5
0.82236469 -0.182 -0.54021829 4
0.39500001 0 0.045000002 0
0.39500001 0 0.045000002 0
0.81064373 -0.252 -0.54347712 6
0.8193453 -0.164 -0.53610939 5
0.81916213 -0.18700001 -0.54281509 3
0.81294006 -0.208 -0.54130298 3
0.80538917 -0.23199999 -0.53930712 5
0.82278728 -0.148 -0.54112458 4
0.39500001 0 0.045000002 0
0.39500001 0 0.045000002 0
0.80659592 -0.21600001 -0.54426128 5
0.81759375 -0.13 -0.53471935 5
0.8143301 -0.15099999 -0.53955138 2
0.80979854 -0.17299999 -0.54166448 3
0.80091864 -0.19599999 -0.53918493 5
0.8236326 -0.115 -0.54293722 5
0.39500001 0 0.045000002 0
0.39500001 0 0.045000002 0
0.80297071 -0.18099999 -0.54595178 5
0.82103574 -0.097999997 -0.5397346 5
0.81342369 -0.117 -0.53997403 3
0.80538917 -0.138 -0.53930712 3
0.79644817 -0.161 -0.5390628 5
0.8192842 -0.081 -0.53834462 5
0.39500001 0 0.045000002 0
0.39500001 0 0.045000002 0
0.79638708 -0.145 -0.54129803 5
0.81541955 -0.064000003 -0.53242308 5
0.80816907 -0.083999999 -0.53580403 3
0.80315393 -0.105 -0.53924602 3
0.79415184 -0.12800001 -0.541237 5
0.82103574 -0.048999999 -0.5397346 5
0.39500001 0 0.045000002 0
0.39500001 0 0.045000002 0
0.79493606 -0.111 -0.54528487 5
0.81801635 -0.032000002 -0.5356257 5
0.81245637 -0.052000001 -0.54263192 3
0.80091864 -0.071999997 -0.53918493 3
0.79058772 -0.093999997 -0.54069221 5
0.81843895 -0.016000001 -0.53653198 5
0.39500001 0 0.045000002 0
0.39500001 0 0.045000002 0
0.78968138 -0.078000002 -0.54111481 5
0.81843895 -2.5928158e-17 -0.53653198 5
0.80985963 -0.02 -0.53942925 3
0.7986834 -0.039000001 -0.53912389 4
0.78877515 -0.061000001 -0.54153746 5
0.81717116 0.015 -0.53381306 5
0.39500001 0 0.045000002 0
0.39500001 0 0.045000002 0
0.78569466 -0.044 -0.53966373 5
0.81674856 0.029999999 -0.53290671 5
0.80895329 0.012 -0.53985184 3
0.79518032 -0.0070000002 -0.53634387 4
0.39500001 0 0.045000002 0
0.82067418 0.046999998 -0.53659308 5
0.80810803 0.028000001 -0.53803927 4
0.79342884 0.0080000004 -0.53495383 4
0.78345942 -0.012 -0.53960264 5
0.81807739 0.061999999 -0.53339046 5
0.80768543 0.044 -0.53713292 3
0.79427403 0.024 -0.53676647 4
0.78339833 0.003 -0.54183793 5
0.81940639 0.078000002 -0.53387415 5
0.80684018 0.059999999 -0.53532034 3
0.79294509 0.039999999 -0.53628284 4
0.78080153 0.018999999 -0.53863537 5
0.82200319 0.094999999 -0.53707677 5
0.80466604 0.075000003 -0.53302401 3
0.39500001 0 0.045000002 0
0.7807405 0.035999998 -0.54087055 5
0.82031262 0.11 -0.53345156 5
0.39500001 0 0.045000002 0
0.79336768 0.071999997 -0.53718913 4
0.39500001 0 0.045000002 0
0.82466102 0.12800001 -0.53804421 6
0.80726284 0.108 -0.53622663 3
0.39500001 0 0.045000002 0
0.77723736 0.068000004 -0.53809059 5
0.82339311 0.14399999 -0.53532523 5
0.39500001 0 0.045000002 0
0.79336768 0.105 -0.53718913 4
0.77850527 0.085000001 -0.54080945 5
0.82085741 0.15899999 -0.52988738 5
0.80774647 0.141 -0.53489769 3
0.39500001 0 0.045000002 0
0.77633107 0.101 -0.53851318 5
0.82478315 0.177 -0.53357369 5
0.39500001 0 0.045000002 0
0.7920388 0.138 -0.53670543 4
0.77542478 0.117 -0.53893584 5
0.82611203 0.19400001 -0.53405738 6
0.80907542 0.175 -0.53538144 3
0.39500001 0 0.045000002 0
0.77542478 0.134 -0.53893584 5
0.82532787 0.20999999 -0.53000951 5
0.39500001 0 0.045000002 0
0.79336768 0.17200001 -0.53718913 4
0.77282798 0.15000001 -0.53573322 5
0.82925361 0.228 -0.53369588 6
0.80829126 0.208 -0.53133357 3
0.39500001 0 0.045000002 0
0.77367324 0.168 -0.53754586 5
0.82756311 0.245 -0.5300706 5
0.39500001 0 0.045000002 0
0.79209983 0.206 -0.5344702 4
0.77325064 0.185 -0.53663951 5
0.82635635 0.26100001 -0.52511638 5
0.81523633 0.24600001 -0.53912878 3
0.39500001 0 0.045000002 0
0.39500001 0 0.045000002 0
0.83070469 0.28099999 -0.52970904 6
0.39500001 0 0.045000002 0
0.79427403 0.243 -0.53676647 4
0.77192169 0.22 -0.53615582 5
0.83034313 0.29800001 -0.52656752 5
0.81227809 0.28 -0.53278458 3
0.39500001 0 0.045000002 0
0.77149904 0.23800001 -0.53524953 5
0.83215576 0.31600001 -0.52572221 3
0.39500001 0 0.045000002 0
0.79216093 0.27700001 -0.53223497 5
0.7684797 0.25400001 -0.53114057 5
0.83523619 0.33700001 -0.52759594 5
0.81240016 0.31600001 -0.52831417 3
0.39500001 0 0.045000002 0
0.77149904 0.27500001 -0.53524953 6
0.83964562 0.35800001 -0.52995336 4
0.39500001 0 0.045000002 0
0.79179943 0.31400001 -0.52909344 4
0.77107644 0.294 -0.53434318 5
0.83970666 0.377 -0.52771807 5
0.81638694 0.35600001 -0.52976519 3
0.79095417 0.33199999 -0.52728081 3
0.7689634 0.31099999 -0.52981162 5
0.84496129 0.40099999 -0.53188807 6
0.39500001 0 0.045000002 0
0.79355091 0.354 -0.53048348 4
0.76938599 0.331 -0.53071797 5
0.84508342 0.419 -0.5274176 6
0.81910586 0.39700001 -0.5284974 4
0.39500001 0 0.045000002 0
0.7689634 0.35100001 -0.52981162 6
0.8503381 0.44400001 -0.5315876 6
0.82001221 0.41800001 -0.52807474 4
0.7940957 0.39399999 -0.52691931 5
0.76727289 0.36899999 -0.52618641 5
0.85432482 0.46799999 -0.53303862 6
0.82357633 0.44100001 -0.52861953 5
0.79542464 0.41600001 -0.52740294 5
0.76902443 0.39199999 -0.52757639 5
0.85529226 0.49000001 -0.53038079 3
0.82665682 0.46599999 -0.5304932 3
0.79850513 0.44 -0.52927667 3
0.77379543 0.41800001 -0.53307533 6
0.86018533 0.51599997 -0.53140926 4
0.8284694 0.48899999 -0.52964795 3
0.79941136 0.463 -0.52885407 3
0.77125967 0.43700001 -0.52763742 6
0.8637495 0.542 -0.53195405 3
0.83372408 0.51800001 -0.53381801 3
0.79904985 0.484 -0.52571255 3
0.77125967 0.46000001 -0.52763742 6
0.86821997 0.56900001 -0.53207618 3
0.8368656 0.54299998 -0.53345644 3
0.80472714 0.514 -0.53078878 3
0.77476269 0.48699999 -0.5304175 6
0.87438089 0.60000002 -0.53582352 3
0.83825564 0.56900001 -0.5317049 3
0.80569446 0.53799999 -0.52813095 3
0.77524644 0.51200002 -0.52908856 6
0.8784287 0.62800002 -0.53503942 3
0.84224236 0.59799999 -0.53315586 3
0.80919755 0.56800002 -0.53091097 3
0.77742058 0.54000002 -0.53138489 4
0.88205397 0.65600002 -0.53334892 3
0.84930962 0.63099998 -0.53648067 3
0.81143278 0.59600002 -0.530972 3
0.77923322 0.56699997 -0.53053963 4
0.88350499 0.68300003 -0.52936214 1
0.85202855 0.66100001 -0.53521281 3
0.81584221 0.62800002 -0.53332943 3
0.7827363 0.59899998 -0.53331965 3
0.88060778 0.70499998 -0.52078271 0
0.85474747 0.69099998 -0.53394496 1
0.81680959 0.65600002 -0.53067154 2
0.78539419 0.63099998 -0.53428704 7
0.39500001 0 0.045000002 0
0.85185021 0.71399999 -0.52536559 0
0.81650907 0.68300003 -0.52529472 1
0.78672308 0.662 -0.53477067 2
0.39500001 0 0.045000002 0
0.39500001 0 0.045000002 0
0.81922805 0.71600002 -0.52402687 0
0.78811306 0.69400001 -0.53301919 0
0.39500001 0 0.045000002 0
0.39500001 0 0.045000002 0
0.39500001 0 0.045000002 0
0.39500001 0 0.045000002 0
0.39500001 0 0.045000002 0
0.39500001 0 0.045000002 0
0.39500001 0 0.045000002 0
0.39500001 0 0.045000002 0
0.39500001 0 0.045000002 0
0.39500001 0 0.045000002 0
0.39500001 0 0.045000002 0
0.39500001 0 0.045000002 0
0.39500001 0 0.045000002 0
0.39500001 0 0.045000002 0
0.39500001 0 0.045000002 0
0.39500001 0 0.045000002 0
0.39500001 0 0.045000002 0
0.39500001 0 0.045000002 0
0.39500001 0 0.045000002 0
0.39500001 0 0.045000002 0
0.9430722 1.051 -0.52696317 0
0.39500001 0 0.045000002 0
0.84737974 0.96899998 -0.52524346 0
0.39500001 0 0.045000002 0
0.95074528 1.103 -0.52448851 1
0.9023543 1.067 -0.52719283 1
0.85535336 1.026 -0.52814555 1
0.39500001 0 0.045000002 0
0.96276665 1.1670001 -0.5266065 1
0.9086985 1.12 -0.52423447 1
0.8594622 1.0779999 -0.52512616 1
0.81505799 1.044 -0.5292815 2
0.97309768 1.229 -0.52509928 1
0.91461998 1.176 -0.52036989 1
0.86532271 1.137 -0.52349675 1
0.81868321 1.101 -0.52759105 2
0.98173809 1.2920001 -0.51996678 1
0.92579615 1.248 -0.52067524 1
0.87208951 1.199 -0.52144474 1
0.82581156 1.168 -0.52868062 1
0.99388158 1.363 -0.51761431 7
0.93654966 1.321 -0.52007431 1
0.88060778 1.271 -0.52078271 1
0.82690114 1.224 -0.52155226 1
1.0108572 1.451 -0.51852548 1
0.94820958 1.4 -0.51905072 1
0.88960981 1.348 -0.51879179 1
0.83318418 1.3 -0.52082914 1
1.0291616 1.548 -0.51992035 7
0.95817894 1.482 -0.51440191 7
0.90120864 1.437 -0.5200035 1
0.84170252 1.3839999 -0.52016711 1
1.0431789 1.638 -0.51448745 7
0.9790802 1.595 -0.5189994 7
0.9085201 1.521 -0.51438725 8
0.8502208 1.478 -0.51950514 8
1.0616055 1.745 -0.51141179 7
0.98826545 1.683 -0.51030272 1
0.92501205 1.636 -0.51662737 8
0.86181957 1.587 -0.52071679 7
1.0818447 1.863 -0.50749099 7
1.0075374 1.807 -0.50903982 6
0.93637133 1.744 -0.51022702 8
0.8700375 1.691 -0.51467806 7
1.1100576 2.0120001 -0.50647229 7
1.0264477 1.938 -0.50463533 6
0.9512338 1.872 -0.5066067 7
0.88000685 1.814 -0.51002926 7
1.1344057 2.1570001 -0.49953204 5
1.0498284 2.092 -0.50035286 12
0.97141206 2.0280001 -0.50492108 6
0.89354038 1.9579999 -0.50592518 8
1.1667275 2.3369999 -0.49549395 5
1.0754445 2.266 -0.4961316 4
0.99080604 2.194 -0.49918768 4
0.90930915 2.1259999 -0.50188214 5
1.2040035 2.546 -0.4902491 5
1.105592 2.4649999 -0.48979723 4
1.0150931 2.392 -0.49448267 5
0.92906475 2.3280001 -0.49929029 6
1.2497976 2.7969999 -0.48434222 4
1.1428679 2.7090001 -0.48455229 4
1.046086 2.6340001 -0.48996088 4
0.94942611 2.5480001 -0.490899 5
1.3076743 3.1040001 -0.47831807 2
1.1908973 3.0109999 -0.47870648 4
1.0811876 2.915 -0.48241973 4
0.97993517 2.8440001 -0.48770618 4
1.3714724 3.457 -0.46842927 1
1.2444257 3.3610001 -0.46808979 2
1.131875 3.29 -0.47754133 4
1.0150369 3.1960001 -0.48016497 4
1.4611871 3.9349999 -0.45969594 2
1.3175874 3.823 -0.45935154 4
1.1854644 3.721 -0.46468928 3
1.0591407 3.632 -0.47063288 1
1.5769405 4.5500002 -0.4476476 0
1.4088142 4.4060001 -0.4443962 2
1.2583257 4.29 -0.45057428 3
1.1141201 4.191 -0.4560293 3
1.7299697 5.3709998 -0.43035448 0
1.5385848 5.223 -0.42691493 1
1.3670117 5.1079998 -0.4352012 1
1.194232 4.9840002 -0.43853337 1
0.39500001 0 0.045000002 0
1.7289511 6.4089999 -0.40214163 1
1.5233047 6.29 -0.41307601 1
0.39500001 0 0.045000002 0
2.2389042 8.1289997 -0.3552309 2
1.9839656 8.0500002 -0.35273924 3
1.7331308 7.9419999 -0.36378112 2
0.39500001 0 0.045000002 0
2.314702 8.8850002 -0.21727176 19
2.0446002 8.8299999 -0.21302365 19
1.7924365 8.849 -0.22358185 20
1.5314541 8.8699999 -0.22942533 63
2.3036358 9.2860003 -0.049201697 15
2.4974952 11.939 -0.060314287 105
2.1564057 11.949 -0.067100696 110
1.645021 10.625 -0.05178649 43
2.694865 11.799 0.15529911 126
2.3729961 11.929 0.18064635 100
1.605329 8.842 0.14927709 150
1.5345955 10.625 0.18028942 150
2.5799079 11.84 0.38526186 124
2.24892 11.925 0.42070064 100
1.5155507 8.849 0.33470866 150
1.5534055 11.954 0.45938829 143
2.4735303 11.923 0.61812192 134
2.1297979 11.94 0.66196173 68
1.629208 10.605 0.61390036 101
1.4471598 12.129 0.72982472 2
2.3554926 11.947 0.84995842 31
1.5889933 8.8479996 0.68121141 46
1.5234925 10.62 0.83824211 7
1.3136638 12.004 0.98534727 18
4.7538009 28.304001 2.5001357 7
1.4976418 8.8280001 0.85818571 17
1.5613594 12.137 1.2089807 1
1.1896533 11.952 1.2441899 128
4.4286971 28.063 3.0293217 7
1.611751 10.59 1.2357888 26
1.4325731 12.063 1.4567691 1
1.0706582 11.947 1.5064743 138
1.5742114 8.8269997 1.1553912 22
3.3219779 27.912001 3.7534471 14
1.3059001 11.972 1.7000262 23
0.94864368 11.947 1.7728677 134
1.4932518 8.8780003 1.3361081 2
1.5325015 12.013 1.8884454 8
1.1829743 11.934 1.9494439 105
0.82928705 11.937 2.0382938 135
1.5936687 10.549 1.7856661 2
0.39500001 0 0.045000002 0
1.0625892 11.939 2.2099771 113
0.68728971 11.094 2.1464131 99
1.4945977 10.613 2.0075893 3
1.2802348 11.826 2.3489816 27
0.93167531 11.664 2.4126382 107
0.57152903 10.7 2.3142118 40
1.4824588 11.639 2.431143 132
1.1655881 11.875 2.6066735 47
0.72939283 9.2819996 2.1318414 70
0.47230652 11.9 2.8417006 66
1.169194 9.2740002 2.1327991 76
1.0450197 11.878 2.8605008 62
0.70281887 11.863 2.9767742 47
0.3519164 11.769 3.0856802 29
1.2636794 11.846 2.95474 59
0.92287344 11.784 3.0893178 36
0.52584237 8.2290001 2.2631166 37
0.29567194 7.1399999 2.0586891 97
0.91525185 8.2349997 2.2372663 35
0.64195001 7.132 2.0425174 9
0.4558121 10.253 3.0403407 28
0.19825223 8.2069998 2.5539167 24
0.94931996 10.444 3.0420678 22
0.59842014 8.2810001 2.5452204 4
0.35944313 8.0760002 2.5915663 53
0.18337521 6.2030001 2.0912848 36
0.743532 8.1330004 2.5510979 25
0.51067436 8.0600004 2.6576734 50
0.30223837 6.368 2.2007768 27
0.16542995 5.1700001 1.8765848 27
0.59665412 6.198 2.0875981 19
0.42192718 6.3400002 2.2422447 37
0.26994115 5.039 1.8701501 22
0.12828104 4.869 1.8923633 60
0.51135129 5.2249999 1.8801074 30
0.36358157 4.9510002 1.8751973 26
0.22482851 4.8600001 1.9219369 63
0.077872224 4.8600001 2.0122964 62
0.45250723 4.8920002 1.8714254 26
0.31382498 4.8540001 1.9535061 59
0.17302968 4.8559999 2.0401185 64
-0.11933435 6.7750001 2.9652364 33
0.40136555 4.8520002 1.9645358 58
0.26317188 4.8449998 2.0644982 59
0.017860169 6.6820002 2.9596984 30
0.026273774 4.2529998 1.9904424 8
0.34877765 4.8390002 2.0702124 59
0.14454547 6.6170001 2.9625006 30
0.11224109 4.2189999 1.9930148 16
-0.18996039 5.9949999 2.9510603 33
0.26198441 6.5830002 2.9543705 28
0.18987331 4.2010002 2.0016308 24
-0.0684736 5.9419999 2.9437149 29
-0.21841742 5.6529999 2.9411008 33
0.26411974 4.2010002 2.0009444 22
0.043832824 5.908 2.9442251 28
0.0048594056 4.3899999 2.3037467 0
-0.1071417 4.1960001 2.3144119 44
0.14580837 5.9190001 2.9432285 31
0.085088409 4.3829999 2.30916 1
-0.024015473 4.1820002 2.3112462 44
-0.13642938 4.0549998 2.3559239 58
0.096144713 5.5999999 2.9266901 39
0.052588377 4.1789999 2.3149691 40
-0.058135133 4.0539999 2.3560214 66
-0.18526502 4.0650001 2.4843142 58
0.12278689 4.1999998 2.3134985 42
0.016533906 4.0500002 2.354429 57
-0.10624771 4.0619998 2.4781289 68
-0.23416167 4.0650001 2.6104696 55
0.084614471 4.0549998 2.3409369 53
-0.032184478 4.0549998 2.4707365 58
-0.15315345 4.0560002 2.5952821 64
-0.088155545 2.891 1.9613575 20
0.035534576 4.0749998 2.4603863 55
-0.08041919 4.0570002 2.5883734 57
-0.032396849 2.8959999 1.9553602 22
-0.33473018 4.0689998 2.8758297 50
-0.013911713 4.0650001 2.5664244 55
0.020098176 2.895 1.9445308 24
-0.25601825 4.0700002 2.8584681 56
-0.36099848 3.9289999 2.9132321 19
0.065887481 2.9119999 1.9338849 24
-0.18358935 4.0700002 2.8403833 58
-0.28778052 3.9530001 2.9076529 18
-0.16054547 2.701 2.1118655 1
-0.11618048 4.0669999 2.8023038 46
-0.22368182 3.9909999 2.9121647 33
-0.10901779 2.7079999 2.0983784 6
0.39500001 0 0.045000002 0
-0.16526526 4.039 2.9052002 50
-0.24657898 3.8150001 2.9092114 13
0.39500001 0 0.045000002 0
0.39500001 0 0.045000002 0
-0.19299439 3.869 2.9055104 24
0.39500001 0 0.045000002 0
0.39500001 0 0.045000002 0
0.39500001 0 0.045000002 0
-0.049506836 2.6830001 2.1150951 11
0.39500001 0 0.045000002 0
0.39500001 0 0.045000002 0
0.39500001 0 0.045000002 0
0.39500001 0 0.045000002 0
0.39500001 0 0.045000002 0
0.39500001 0 0.045000002 0
0.39500001 0 0.045000002 0
0.39500001 0 0.045000002 0
0.39500001 0 0.045000002 0
0.39500001 0 0.045000002 0
0.39500001 0 0.045000002 0
0.39500001 0 0.045000002 0
0.39500001 0 0.045000002 0
0.39500001 0 0.045000002 0
-0.43652746 2.6659999 2.8669791 35
0.39500001 0 0.045000002 0
0.39500001 0 0.045000002 0
-0.39726061 2.7149999 2.8632216 27
-0.44166479 2.5380001 2.8590665 43
0.39500001 0 0.045000002 0
-0.36451629 2.7679999 2.8663535 10
-0.40722999 2.5899999 2.858573 42
-0.45084509 2.428 2.8669226 46
0.39500001 0 0.045000002 0
-0.37841132 2.648 2.865391 30
-0.41792244 2.477 2.8602073 47
-0.45586035 2.313 2.8634808 46
-0.35521373 2.714 2.8629677 16
-0.38808027 2.526 2.8553655 38
-0.42734709 2.3640001 2.8591225 45
-0.4609367 2.201 2.8578031 44
-0.37098247 2.596 2.8589249 31
-0.40233687 2.418 2.8575444 47
-0.43465856 2.253 2.8535063 44
-0.46377772 2.0929999 2.8520648 43
-0.38783589 2.4920001 2.8643062 38
-0.41309047 2.3110001 2.8569434 45
-0.44148645 2.1459999 2.8492193 44
-0.46794769 1.988 2.8468106 43
-0.40016273 2.378 2.8552482 42
-0.42185298 2.2 2.8473406 43
-0.44789165 2.0420001 2.8440256 44
-0.46994361 1.885 2.8392596 43
-0.41405785 2.2739999 2.8542857 41
-0.43260664 2.0999999 2.8467395 43
-0.45339063 1.942 2.8392546 47
-0.47356886 1.79 2.8375688 45
-0.42632353 2.168 2.8474629 43
-0.44040173 1.998 2.8397944 43
-0.45931214 1.845 2.8353899 47
-0.47671038 1.698 2.8372076 47
-0.43882862 2.072 2.8482518 43
-0.44904223 1.901 2.834662 43
-0.46764728 1.757 2.8414338 51
-0.4782224 1.605 2.8309853 47
-0.44928166 1.973 2.8422742 42
-0.4575606 1.808 2.8340001 43
-0.47272351 1.665 2.8357563 51
-0.19038996 1.013 1.9037544 13
-0.46094146 1.881 2.8412504 41
-0.46523371 1.7180001 2.8315253 44
-0.47562566 1.573 2.8277826 48
-0.19672924 0.963 1.917349 10
-0.47006568 1.786 2.834789 42
-0.47580409 1.635 2.83763 43
-0.19117419 0.99599999 1.9078022 19
-0.48595661 1.349 2.8262756 50
-0.48160338 1.701 2.8382359 43
-0.18912213 1.03 1.9010355 4
-0.20548211 0.958 1.9408519 3
-0.48613989 1.2640001 2.8195701 50
-0.48939869 1.612 2.831291 41
-0.19691248 0.98000002 1.9106432 15
-0.48873663 1.322 2.8227727 54
-0.2729032 0.89600003 2.1422255 2
-0.20078205 1.017 1.900012 12
-0.49362963 1.378 2.8238008 47
-0.49242291 1.24 2.8188467 54
-0.48928145 1.107 2.8192081 52
-0.21116912 0.96899998 1.9128222 10
-0.49985173 1.299 2.8253131 49
-0.49067619 1.155 2.8009038 131
-0.49151659 1.031 2.8192692 57
-0.51513678 1.3609999 2.8225992 45
-0.50372124 1.216 2.8146815 49
-0.50039643 1.087 2.821749 55
-0.49115497 0.95499998 2.8161278 53
-0.52280986 1.28 2.8201241 45
-0.50541657 1.1339999 2.8017542 119
-0.50233126 1.01 2.8164334 56
-0.49206129 0.88099998 2.8157051 55
-0.53048295 1.202 2.8176498 45
-0.51658791 1.066 2.8186123 53
-0.50631797 0.93699998 2.8178842 53
-0.49459705 0.81 2.8211432 53
-0.53392982 1.122 2.8061121 60
-0.52232617 0.99199998 2.8214533 49
-0.51030475 0.86400002 2.8193355 56
-0.49423555 0.73799998 2.8180015 52
-0.54486167 1.05 2.8153584 49
-0.52565098 0.91600001 2.8143861 51
-0.51423049 0.79299998 2.8230217 51
-0.49719378 0.66900003 2.8243456 50
-0.55241275 0.97600001 2.8173542 46
-0.53181189 0.84399998 2.8181336 49
-0.51477528 0.72100002 2.8194575 52
-0.49846172 0.59799999 2.8270648 27
-0.55833423 0.90200001 2.8134897 48
-0.53459185 0.77200001 2.8146303 47
-0.5174942 0.64999998 2.8181896 36
-0.49182197 0.52499998 2.8080933 6
-0.56630772 0.82999998 2.8163917 46
-0.54075289 0.70200002 2.8183777 43
-0.51719368 0.57800001 2.8128128 17
0.39500001 0 0.045000002 0
-0.57337505 0.759 2.8197162 46
-0.54395539 0.63 2.8157811 23
0.39500001 0 0.045000002 0
0.39500001 0 0.045000002 0
-0.58086479 0.68900001 2.8239474 31
-0.54087991 0.55699998 2.7973542 3
0.39500001 0 0.045000002 0
0.39500001 0 0.045000002 0
-0.58213758 0.61400002 2.8101134 8
0.39500001 0 0.045000002 0
0.39500001 0 0.045000002 0
0.39500001 0 0.045000002 0
0.39500001 0 0.045000002 0
0.39500001 0 0.045000002 0
0.39500001 0 0.045000002 0
0.39500001 0 0.045000002 0
0.39500001 0 0.045000002 0
0.39500001 0 0.045000002 0
0.39500001 0 0.045000002 0
0.39500001 0 0.045000002 0
0.39500001 0 0.045000002 0
0.39500001 0 0.045000002 0
0.39500001 0 0.045000002 0
0.39500001 0 0.045000002 0
0.39500001 0 0.045000002 0
0.39500001 0 0.045000002 0
0.39500001 0 0.045000002 0
0.39500001 0 0.045000002 0
0.39500001 0 0.045000002 0
0.39500001 0 0.045000002 0
0.39500001 0 0.045000002 0
0.39500001 0 0.045000002 0
0.39500001 0 0.045000002 0
0.39500001 0 0.045000002 0
0.39500001 0 0.045000002 0
0.39500001 0 0.045000002 0
0.39500001 0 0.045000002 0
0.39500001 0 0.045000002 0
0.39500001 0 0.045000002 0
0.39500001 0 0.045000002 0
0.39500001 0 0.045000002 0
0.39500001 0 0.045000002 0
0.39500001 0 0.045000002 0
0.39500001 0 0.045000002 0
0.39500001 0 0.045000002 0
0.39500001 0 0.045000002 0
0.39500001 0 0.045000002 0
0.39500001 0 0.045000002 0
0.39500001 0 0.045000002 0
0.39500001 0 0.045000002 0
0.39500001 0 0.045000002 0
0.39500001 0 0.045000002 0
0.39500001 0 0.045000002 0
0.39500001 0 0.045000002 0
0.39500001 0 0.045000002 0
0.39500001 0 0.045000002 0
0.39500001 0 0.045000002 0
0.39500001 0 0.045000002 0
0.39500001 0 0.045000002 0
0.39500001 0 0.045000002 0
0.39500001 0 0.045000002 0
0.39500001 0 0.045000002 0
0.39500001 0 0.045000002 0
0.39500001 0 0.045000002 0
0.39500001 0 0.045000002 0
0.39500001 0 0.045000002 0
0.39500001 0 0.045000002 0
0.39500001 0 0.045000002 0
0.39500001 0 0.045000002 0
0.39500001 0 0.045000002 0
0.39500001 0 0.045000002 0
0.39500001 0 0.045000002 0
0.39500001 0 0.045000002 0
0.39500001 0 0.045000002 0
0.39500001 0 0.045000002 0
0.39500001 0 0.045000002 0
0.39500001 0 0.045000002 0
0.39500001 0 0.045000002 0
0.39500001 0 0.045000002 0
0.39500001 0 0.045000002 0
0.39500001 0 0.045000002 0
0.39500001 0 0.045000002 0
0.39500001 0 0.045000002 0
0.39500001 0 0.045000002 0
0.39500001 0 0.045000002 0
0.39500001 0 0.045000002 0
0.39500001 0 0.045000002 0
0.39500001 0 0.045000002 0
0.39500001 0 0.045000002 0
0.39500001 0 0.045000002 0
0.39500001 0 0.045000002 0
0.39500001 0 0.045000002 0
0.39500001 0 0.045000002 0
0.39500001 0 0.045000002 0
0.39500001 0 0.045000002 0
0.39500001 0 0.045000002 0
0.39500001 0 0.045000002 0
0.39500001 0 0.045000002 0
0.39500001 0 0.045000002 0
0.39500001 0 0.045000002 0
0.39500001 0 0.045000002 0
0.39500001 0 0.045000002 0
0.39500001 0 0.045000002 0
0.39500001 0 0.045000002 0
0.39500001 0 0.045000002 0
0.39500001 0 0.045000002 0
0.39500001 0 0.045000002 0
0.39500001 0 0.045000002 0
0.39500001 0 0.045000002 0
0.39500001 0 0.045000002 0
0.39500001 0 0.045000002 0
0.39500001 0 0.045000002 0
0.39500001 0 0.045000002 0
0.39500001 0 0.045000002 0
0.39500001 0 0.045000002 0
0.39500001 0 0.045000002 0
0.39500001 0 0.045000002 0
0.39500001 0 0.045000002 0
0.39500001 0 0.045000002 0
0.39500001 0 0.045000002 0
0.39500001 0 0.045000002 0
0.39500001 0 0.045000002 0
0.39500001 0 0.045000002 0
0.39500001 0 0.045000002 0
0.39500001 0 0.045000002 0
0.39500001 0 0.045000002 0
0.39500001 0 0.045000002 0
0.39500001 0 0.045000002 0
0.39500001 0 0.045000002 0
0.39500001 0 0.045000002 0
0.39500001 0 0.045000002 0
0.39500001 0 0.045000002 0
0.39500001 0 0.045000002 0
0.39500001 0 0.045000002 0
0.39500001 0 0.045000002 0
0.39500001 0 0.045000002 0
0.39500001 0 0.045000002 0
0.39500001 0 0.045000002 0
0.39500001 0 0.045000002 0
0.39500001 0 0.045000002 0
0.39500001 0 0.045000002 0
0.39500001 0 0.045000002 0
0.39500001 0 0.045000002 0
-0.33126611 -2.128 2.7406256 21
0.39500001 0 0.045000002 0
0.39500001 0 0.045000002 0
0.39500001 0 0.045000002 0
-0.086132839 -1.494 1.855273 4
0.39500001 0 0.045000002 0
0.39500001 0 0.045000002 0
0.39500001 0 0.045000002 0
-0.074238434 -1.541 1.8321316 19
0.39500001 0 0.045000002 0
0.39500001 0 0.045000002 0
0.39500001 0 0.045000002 0
-0.29532897 -2.404 2.7132485 47
0.39500001 0 0.045000002 0
0.39500001 0 0.045000002 0
-0.40473333 -2.434 2.7207115 38
-0.28819579 -2.5239999 2.7287118 42
0.39500001 0 0.045000002 0
-0.51456016 -2.4649999 2.7290809 10
-0.39826703 -2.552 2.7281401 45
-0.27496764 -2.6259999 2.7216399 30
0.39500001 0 0.045000002 0
-0.50839937 -2.5799999 2.7253335 27
-0.38938707 -2.665 2.7256608 34
-0.26173943 -2.734 2.7145679 11
0.39500001 0 0.045000002 0
-0.50344521 -2.7019999 2.7265401 31
-0.37797156 -2.7780001 2.7177434 11
0.39500001 0 0.045000002 0
-0.62257946 -2.7420001 2.7217422 10
-0.49722308 -2.8269999 2.725028 16
0.39500001 0 0.045000002 0
0.39500001 0 0.045000002 0
-0.61823106 -2.8729999 2.7171497 10
-0.48804271 -2.9519999 2.7171719 1
0.39500001 0 0.045000002 0
0.39500001 0 0.045000002 0
-0.61261487 -3.0039999 2.7098382 1
0.39500001 0 0.045000002 0
0.39500001 0 0.045000002 0
0.39500001 0 0.045000002 0
0.39500001 0 0.045000002 0
0.39500001 0 0.045000002 0
0.39500001 0 0.045000002 0
0.39500001 0 0.045000002 0
0.39500001 0 0.045000002 0
0.39500001 0 0.045000002 0
0.39500001 0 0.045000002 0
0.39500001 0 0.045000002 0
0.39500001 0 0.045000002 0
0.39500001 0 0.045000002 0
-0.30837885 -3.6210001 2.7104733 3
-0.15191741 -3.6559999 2.6896455 19
0.39500001 0 0.045000002 0
-0.42505309 -3.6300001 2.6483438 8
-0.26690599 -3.641 2.6073375 23
-0.10984366 -3.655 2.5757561 42
-0.5397976 -3.635 2.5749769 9
-0.37814733 -3.635 2.5311906 25
-0.22265814 -3.641 2.4911518 46
-0.068676181 -3.648 2.4614441 50
-0.48739782 -3.6289999 2.4460418 33
-0.33166423 -3.6370001 2.4149437 47
-0.18010077 -3.641 2.3785913 58
-0.027931396 -3.638 2.3480384 51
-0.43952471 -3.6359999 2.3315461 45
-0.28524226 -3.6289999 2.2964616 54
-0.13748224 -3.638 2.2682662 57
0.010883575 -3.6400001 2.2458699 52
-0.38742536 -3.6210001 2.207988 49
-0.24038848 -3.6289999 2.1860754 55
-0.095709018 -3.6340001 2.1597533 56
0.048792176 -3.6370001 2.1432786 53
-0.34540784 -3.6440001 2.1084163 37
-0.20790796 -3.691 2.1140544 37
-0.067149289 -3.7249999 2.1079717 39
0.075182587 -3.756 2.1103461 39
-0.33906367 -3.8529999 2.1113746 38
-0.19407392 -3.891 2.1127818 39
-0.049690034 -3.9189999 2.1083894 40
0.099948518 -3.9230001 2.0998271 20
-0.52647901 -5.1729999 2.6694574 31
-0.33497205 -5.211 2.6704886 24
-0.1440708 -5.244 2.66572 26
0.13345745 -3.993 2.0326993 19
-0.50896358 -5.448 2.6555576 40
-0.31328651 -5.4899998 2.6618433 24
0.048516236 -3.7509999 1.822067 3
